ply
format ascii 1.0
element vertex 1216
property float x
property float y
property float z
property uint8 red
property uint8 green
property uint8 blue
end_header
-4.101470 2.218413 -2.465217 200 160 71
-3.076403 2.784081 -2.554108 43 31 5
-3.653100 2.425096 -2.526726 157 113 18
-2.788779 2.568849 -2.557443 34 30 18
-3.465084 2.528380 -2.571821 195 152 46
-1.499117 2.544997 -2.552799 82 84 82
-3.907770 2.236465 -2.544276 198 157 56
-2.274166 2.445322 -2.573658 72 73 67
-3.450421 2.502716 -2.626431 167 121 23
-1.942619 2.521055 -2.625094 67 69 64
-2.495360 2.555191 -2.640836 46 47 32
-1.384187 2.678698 -2.659365 76 80 80
-1.846336 2.516843 -2.684993 74 75 71
-1.848803 2.555836 -2.690280 74 75 71
-3.161568 2.578534 -2.767479 190 146 39
-2.716700 2.771938 -2.956984 169 126 43
-2.746518 2.742878 -2.986548 148 104 26
-1.435457 2.821451 -3.027065 49 49 47
-2.104935 3.022069 -3.190691 161 127 60
-2.800219 2.619327 -3.140690 128 84 19
-2.712772 2.654954 -3.172347 135 94 20
-2.602562 2.667207 -3.200341 179 138 48
-2.222608 2.836181 -3.331848 154 112 30
-5.316941 3.457157 0.599298 158 107 24
-5.736666 2.909027 0.361338 156 159 149
-2.864760 4.721742 0.719373 66 68 62
-4.155243 3.957002 0.267021 219 169 48
-3.963829 4.093975 0.244265 141 102 28
-5.734869 2.482816 -0.286540 192 143 42
-5.412363 2.200274 -1.084685 196 152 45
-4.700587 2.584969 -1.236604 209 161 60
-4.909881 2.377443 -1.282325 198 155 53
-3.826714 3.188110 -1.208423 181 145 54
-4.673980 2.561662 -1.310681 182 137 40
-5.184804 2.150100 -1.392373 139 100 31
-4.157409 2.860765 -1.373031 208 167 67
-5.087871 2.117815 -1.515145 127 92 37
-4.634124 2.450932 -1.497986 208 166 65
-0.193522 5.422071 -1.400858 219 235 249
-4.466535 2.505935 -1.579364 191 152 58
-0.204954 5.379570 -1.486765 226 242 255
-4.370941 2.527902 -1.638485 206 167 66
-4.377187 2.532297 -1.636141 206 167 66
-4.191591 2.656759 -1.634238 168 133 51
-3.310512 2.684298 -1.648017 115 111 93
-4.285470 2.551651 -1.716617 185 145 50
-4.284913 2.548688 -1.716199 185 145 50
-4.572179 2.339832 -1.721854 130 94 32
-4.571540 2.246541 -1.850574 127 92 33
-4.548241 2.217883 -1.851776 127 92 33
-1.854759 2.741136 -1.898210 76 78 67
-4.628801 2.138545 -1.895850 124 92 35
-4.592967 2.210608 -1.923619 123 91 32
-4.736038 2.085761 -1.940135 145 108 39
-4.397745 2.323766 -1.955568 145 108 41
-5.088588 1.843441 -1.934046 136 99 26
-4.530986 2.198628 -1.955348 129 92 31
-4.484739 2.224954 -1.990335 133 98 35
-3.900479 2.576689 -2.048049 186 148 51
-4.343889 2.266128 -2.069050 146 110 34
-4.115601 2.404144 -2.090197 145 109 34
-4.114952 2.404380 -2.091332 145 109 34
-3.542855 2.739708 -2.162479 187 145 46
-3.982712 2.440826 -2.153275 137 99 28
-3.046213 2.636377 -2.264244 67 69 60
-4.529053 2.063020 -2.242903 185 149 63
-2.228728 2.526721 -2.298045 52 52 42
-4.287489 2.135190 -2.323472 159 123 37
-1.456271 2.607459 -2.403884 36 37 32
-4.123724 2.201953 -2.394970 151 111 24
-1.920843 2.501930 -2.567077 34 35 30
-3.725155 2.339713 -2.606797 166 122 18
-1.928224 2.531083 -2.698496 26 26 23
-2.153027 2.545062 -2.803784 158 156 138
-2.601981 3.063802 -3.039946 133 97 36
-5.526421 3.505940 1.085249 75 63 37
-5.298263 3.516721 0.915093 114 69 23
-5.357309 3.427390 0.685723 117 74 13
-4.742764 3.850770 0.854715 252 97 0
-5.882248 2.782667 0.286747 129 94 37
-3.943603 3.937042 0.085523 173 134 35
-3.694563 4.025012 -0.044018 178 181 143
-4.791934 2.863955 -0.720368 214 163 46
-4.874027 2.706525 -0.876317 221 171 50
-4.297165 2.994710 -1.033060 161 129 53
-4.365170 2.885876 -1.114469 159 129 48
-3.934198 2.958725 -1.288350 132 104 50
-5.237354 2.021773 -1.503526 119 86 31
-4.820827 2.330182 -1.503872 202 163 67
-3.620931 3.116576 -1.587915 148 121 51
-4.175510 2.621226 -1.709834 201 166 73
-3.792699 2.860031 -1.741331 173 141 58
-3.536279 2.646963 -2.321723 180 140 42
-3.567890 2.592636 -2.367923 170 128 30
-2.970338 2.680775 -2.379892 65 68 57
-3.939170 2.306822 -2.414584 189 149 60
-3.175886 2.756965 -2.518776 147 118 52
-2.605875 2.582766 -2.615627 55 55 40
-3.511887 2.425401 -2.660720 198 152 50
-2.240248 2.475625 -2.680134 29 26 24
-2.931736 2.581623 -3.020208 129 86 25
-5.823718 3.096243 0.714113 50 52 40
-4.185675 4.557520 1.137878 175 125 39
-6.048129 2.767756 0.366425 133 96 43
-2.480073 4.652306 0.976392 18 18 13
-4.494589 3.879154 0.659933 255 145 7
-5.638566 2.939706 0.321103 49 38 14
-5.643325 2.941438 0.321542 49 38 14
-4.712705 3.612274 0.184781 216 153 23
-2.875730 4.865703 0.408385 211 214 195
-3.849163 3.902350 0.017737 242 232 179
-4.757676 3.222382 -0.216599 178 123 22
-3.126692 4.337748 -0.081129 145 146 136
-5.280039 2.265907 -1.123363 200 152 44
-3.966930 3.211195 -1.075111 155 121 47
-3.601323 3.332577 -1.220213 173 139 40
-5.252036 2.136210 -1.351211 178 139 47
-4.575970 2.587233 -1.340736 201 159 50
-1.298789 3.389903 -1.288143 49 52 43
-4.388229 2.659857 -1.430692 201 160 62
-3.442491 2.851597 -1.800278 54 43 10
-1.320282 2.740073 -1.847187 51 51 41
-5.162824 1.837115 -1.880518 125 85 27
-4.913533 1.921454 -2.020245 130 91 22
-4.197054 2.265671 -2.232455 154 118 40
-3.362237 2.756964 -2.306849 170 127 33
-3.128173 2.793082 -2.590892 151 113 41
-3.682425 2.378250 -2.563730 210 166 59
-3.545427 2.463345 -2.575235 156 109 16
-2.948897 2.725474 -2.834521 146 105 40
-3.503247 2.373355 -2.791287 176 133 38
-1.695940 3.010828 -3.151801 222 228 231
-5.465647 3.699115 1.211484 53 24 0
-5.537604 3.071234 0.347973 153 107 29
-4.316155 4.032897 0.469476 199 142 12
-5.748662 2.646958 -0.009911 134 93 29
-5.932426 2.479337 -0.143829 187 142 38
-2.112569 4.821048 0.494225 31 22 20
-4.820561 3.171680 -0.091469 169 111 29
-5.023475 3.191072 -0.120359 183 134 33
-0.226370 5.514395 -0.022040 53 53 43
-4.986960 2.791120 -0.619708 201 151 31
-3.818260 3.154311 -1.310140 122 91 44
-3.818260 3.154311 -1.310140 122 91 44
-4.599227 2.472947 -1.499216 207 165 61
-4.480573 2.428585 -1.717691 202 163 70
-3.160311 2.741514 -2.568424 148 108 36
-2.716516 2.795370 -2.932563 141 99 37
-1.915262 3.074032 -3.304100 178 142 69
-3.255709 3.889217 -0.772629 207 158 34
-3.835761 3.261800 -1.111347 177 129 24
-3.926578 2.967429 -1.443535 194 144 38
-0.249070 5.515118 -0.284137 249 254 122
-1.768950 4.925317 0.446756 247 252 51
-3.648515 2.753830 -2.033050 185 136 31
-3.912618 2.495167 -2.211253 158 111 34
1.558282 5.453116 -3.242625 241 198 103
-3.460538 3.861721 -0.580193 174 127 19
-0.629078 5.302908 -1.068020 202 225 241
-2.690167 4.172015 -0.868221 178 139 51
-0.268070 5.416540 -1.323128 139 158 175
1.853764 6.056465 -2.634858 173 130 69
2.386915 5.996243 -3.230667 169 131 48
0.485702 7.235462 -5.583167 69 71 68
-3.232008 2.599003 -2.704673 163 120 36
-3.122178 4.016473 -0.679108 160 117 15
-3.824602 3.327843 -1.000604 190 141 33
1.480847 6.231287 -1.970545 196 159 76
0.549415 5.598297 -1.864785 107 131 151
0.493133 5.560720 -1.860312 200 222 244
-4.296399 2.983376 -1.042933 114 74 16
3.582592 7.216720 -2.614475 200 155 73
1.967978 6.087965 -2.676316 187 146 87
2.162616 5.306330 -4.049384 145 109 73
-3.288350 2.759022 -2.403594 98 62 2
2.297493 5.163775 -4.376993 192 157 103
-3.186317 5.814417 -18.893293 41 45 42
-0.450878 4.971264 -2.020292 165 137 76
-0.350430 4.934205 -2.071489 209 176 96
-0.847771 4.747346 -1.865391 225 186 95
-0.880869 4.716072 -1.886151 169 130 47
-1.177478 4.560714 -1.809886 156 118 46
-1.213451 4.522969 -1.827763 182 148 75
1.598499 5.296097 -3.475743 148 114 69
1.384127 4.967384 -3.786089 109 95 80
2.541551 2.708426 -6.005442 84 69 30
2.540191 2.703385 -6.005117 84 69 30
1.841210 3.022999 -6.759322 162 159 136
1.706248 2.807298 -6.943224 149 140 69
1.707791 2.805229 -6.941023 149 140 69
2.913175 2.114911 -5.527353 19 36 85
2.786127 2.136755 -5.635151 93 98 100
2.786127 2.136755 -5.635151 93 98 100
2.934927 2.051905 -5.522446 107 161 209
2.067906 2.076570 -6.615355 163 152 45
-1.365804 5.715258 -20.631330 14 17 13
-2.508381 5.117017 -20.114288 38 43 39
-2.523951 4.965303 -20.311895 34 34 33
-2.318885 4.823033 -20.611286 134 137 131
-1.225825 4.706159 -1.584959 197 171 96
-1.059289 4.741895 -1.665557 196 165 81
-1.291638 4.583139 -1.675813 223 185 78
2.487577 5.337196 -4.071888 125 139 143
1.845479 4.772095 -4.523098 251 207 109
-4.883963 2.652710 -0.911037 206 167 74
2.455508 4.776933 -5.123585 201 162 83
2.054382 4.501398 -5.105222 193 153 81
2.423579 4.497226 -5.507187 201 156 73
2.430087 4.459123 -5.559115 254 210 116
-5.572012 1.668648 -1.714432 129 92 22
3.395907 2.092240 -5.258543 220 236 247
2.499079 2.478893 -6.097087 100 80 30
-3.813092 7.324918 -17.866690 27 24 17
1.566469 2.614253 -7.112392 164 152 72
-2.325911 6.924843 -18.288187 21 17 7
-1.472239 6.406636 -19.502882 52 33 22
-1.884934 6.309346 -19.427345 54 46 40
-2.240726 5.429030 -19.907654 74 64 58
0.280314 5.545543 -1.658205 218 243 255
-3.727322 4.222183 0.369186 196 199 170
1.627822 5.582827 -3.095989 164 133 61
-0.358922 4.908592 -2.120548 163 126 56
-1.135164 4.549638 -1.871733 182 149 70
1.737602 4.808674 -4.336891 195 154 76
2.853764 4.796509 -5.482963 253 213 119
1.627993 4.399401 -4.853117 241 204 124
1.625587 4.398191 -4.839340 241 204 124
2.122307 4.538578 -5.135495 178 138 67
1.879092 4.407979 -5.107303 241 199 114
1.668422 4.226092 -5.162766 180 141 70
-4.906548 1.919537 -2.016817 133 98 27
-5.164515 1.803893 -1.965655 173 143 76
-0.200225 7.237191 -18.557472 85 82 62
-2.004519 5.937670 -19.602728 21 17 18
-2.494424 4.736692 -20.608833 32 29 23
0.387872 5.578098 -1.744191 208 232 254
2.785689 6.308177 -3.215059 164 137 81
-0.797377 4.642364 -2.107229 114 75 21
2.596275 2.666141 -5.950986 212 200 164
2.392307 2.740497 -6.137493 83 71 39
2.508186 2.548454 -6.047857 195 186 148
2.317991 2.540492 -6.260850 203 198 164
3.086574 2.001466 -5.372404 36 36 46
2.407933 2.172489 -6.247400 110 82 40
1.893692 2.290870 -6.790896 110 92 23
-2.708491 5.902617 -18.955387 151 146 134
-2.616924 5.657267 -19.131330 58 54 53
-2.047296 5.311580 -20.265503 67 76 76
-2.047296 5.311580 -20.265503 67 76 76
-1.568465 5.364559 -20.757725 13 14 11
1.616102 6.087778 -2.333264 142 101 56
-0.114482 4.995144 -2.191739 187 157 98
1.908900 5.619375 -3.285308 209 176 99
1.547304 5.388797 -3.299356 216 188 115
-0.524937 4.754478 -2.234113 115 81 19
1.739013 4.745567 -4.433396 250 209 110
3.023880 4.815524 -5.618442 210 166 79
2.469292 2.401190 -6.160095 91 76 34
2.376210 2.297748 -6.222987 215 156 133
1.871634 2.430597 -6.736744 160 149 54
-1.542757 5.619871 -20.529100 57 67 66
1.681718 5.368621 -3.479319 161 126 78
2.626573 4.556307 -5.565824 225 179 97
2.316221 4.431069 -5.414258 204 161 76
3.270983 2.094831 -5.321935 43 47 52
-1.110610 4.689850 -1.712202 189 153 59
-0.908726 4.717648 -1.787010 178 138 50
-3.392572 7.579539 -17.737547 20 13 7
2.176873 5.179953 -4.246673 183 148 80
2.252329 4.910273 -4.659938 239 199 108
2.289731 2.745038 -6.231828 91 78 44
1.877115 2.835120 -6.769505 61 55 30
2.154545 4.724555 -4.866206 126 93 62
2.201300 4.390142 -5.225285 213 169 90
2.528529 2.641506 -6.032612 147 144 107
-0.719432 5.193878 -1.173037 212 217 217
0.989011 5.782365 -2.038063 214 238 250
2.096371 4.585860 -5.033800 206 167 99
-4.036899 3.991093 0.120113 197 165 78
2.453204 2.672670 -6.008985 214 213 180
-4.548946 2.402843 -1.695673 154 109 19
-4.587826 2.198817 -1.917294 108 72 15
-5.280385 1.767140 -1.940354 154 119 53
-1.935242 5.658179 -19.928606 43 52 48
2.674726 3.637124 -5.725808 103 99 92
-2.193734 4.902764 -20.490095 32 34 29
1.937259 3.279909 -6.582576 115 112 94
1.931189 3.217455 -6.602693 48 45 29
2.314287 3.052374 -6.140131 143 143 121
1.556207 2.674656 -7.125397 85 81 0
2.462993 2.812083 -6.075239 67 69 43
-2.200867 3.358776 -1.111124 40 41 35
-4.240252 3.083403 -0.972412 144 100 20
1.606744 4.639899 -4.548007 196 155 83
-4.295434 2.347368 -2.073532 137 97 20
-4.359047 2.130076 -2.309224 154 119 32
-3.725480 2.331132 -2.617514 172 133 28
-1.544975 6.003550 -20.110518 10 10 5
-1.262565 5.855830 -20.550768 70 69 66
2.719613 3.635090 -5.702953 168 167 149
-2.425221 5.159577 -20.518049 92 101 99
-1.308393 5.518808 -20.918859 13 14 13
-1.324358 5.524513 -20.910217 13 14 13
-2.733216 4.961424 -20.140795 43 43 42
2.583142 3.499548 -5.819548 193 192 174
-2.778374 4.574438 -20.480518 36 36 30
2.437349 3.274377 -6.008888 60 47 26
2.221399 2.928638 -6.343779 64 59 33
2.136307 2.788775 -6.368250 176 172 152
1.727213 2.644315 -6.924052 148 143 52
2.530174 2.616192 -6.013076 212 208 184
1.805800 2.438562 -6.840838 104 94 7
2.822178 2.351287 -5.626718 78 89 82
-3.855329 3.414835 -0.855399 151 110 34
-4.629148 3.047817 -0.593542 153 105 23
1.922778 5.130632 -4.032552 172 140 93
-4.128591 3.101631 -1.077374 162 127 59
-3.768444 3.105849 -1.398013 170 152 93
2.101977 5.015471 -4.409214 216 179 108
-4.792847 2.340147 -1.528625 187 144 34
2.784616 4.732653 -5.532886 220 179 97
-6.064411 1.737428 -1.173492 127 87 14
1.399066 4.169965 -4.974014 191 155 95
-3.452351 2.491806 -2.632048 174 134 35
1.465095 4.111037 -5.113960 235 194 103
-5.268038 1.828002 -1.828398 137 99 35
-2.406646 5.318946 -19.616953 41 46 45
-2.769055 5.176625 -20.057835 53 59 59
-2.959093 4.985210 -19.758530 53 48 47
-1.756847 5.065001 -21.034594 108 111 103
2.412608 3.228287 -6.019209 162 157 141
2.144886 2.850080 -6.379889 57 50 25
1.668028 2.474136 -7.003178 92 81 9
2.449907 2.486690 -6.134142 206 197 169
2.971028 2.428917 -5.571867 30 34 33
2.078331 2.143382 -6.577559 174 169 77
3.131732 2.419627 -5.475190 142 178 215
3.037007 2.008065 -5.401581 209 210 204
-4.079936 3.526102 -0.460429 158 111 29
-3.676160 3.374957 -1.074523 194 159 86
2.548994 5.340611 -4.123660 108 129 156
-4.995905 2.610156 -0.968739 189 147 37
-4.472992 2.485817 -1.533327 182 140 34
-4.752770 2.352845 -1.592553 168 125 30
2.652670 4.724437 -5.390579 244 206 121
2.660239 4.544042 -5.682799 194 151 73
-5.251925 1.868266 -1.761631 113 78 17
-5.341625 1.799178 -1.795569 136 101 37
2.347092 4.210908 -6.036051 187 162 130
-2.896800 5.506361 -19.183804 61 58 61
-2.501818 4.740386 -20.650618 26 26 18
1.716609 2.559852 -6.964197 93 83 15
2.503277 2.676805 -6.059469 78 71 42
1.808314 2.526426 -6.844813 136 132 38
2.466767 2.605940 -6.097093 74 71 38
2.294047 2.329109 -6.298048 96 76 42
3.043459 2.323935 -5.484018 95 91 105
-27.020599 -7.239630 -17.655991 5 7 2
2.144750 1.935645 -6.540869 101 92 24
-4.287889 2.910512 -1.188080 137 102 36
-4.733949 2.758352 -0.957637 196 155 38
1.570392 4.340385 -4.887116 193 154 82
2.757624 4.680066 -5.570795 242 204 119
-5.770161 1.748463 -1.430449 110 70 12
-4.884729 2.009400 -1.893442 114 80 17
2.499664 2.779414 -6.053097 223 221 207
2.411872 2.651882 -6.180476 166 161 136
2.408376 2.553195 -6.176667 73 61 33
2.600755 2.572768 -5.967163 89 75 35
2.340161 2.418972 -6.272406 75 63 28
3.185395 2.490625 -5.513544 37 33 42
2.982949 2.325189 -5.511518 205 194 95
3.129442 2.152626 -5.383788 81 133 189
3.337760 2.196443 -5.322532 150 191 219
2.119056 5.745905 -3.464931 213 180 108
-3.171260 3.671215 -0.959607 170 151 92
2.447990 5.588355 -3.886334 136 102 64
-0.197070 4.154048 -2.153016 82 94 111
1.839171 5.045683 -4.139855 215 177 112
2.096800 4.907673 -4.602463 194 155 84
-4.486277 2.563201 -1.501472 138 94 16
2.288311 4.566708 -5.279502 185 145 79
2.007593 4.426429 -5.205662 231 189 110
2.101140 3.859294 -6.398356 40 23 8
2.295958 2.003168 -6.358711 110 102 44
-4.799786 2.885735 -0.723977 200 152 45
2.075981 4.370862 -5.303053 197 155 82
2.637609 4.582435 -5.670772 206 163 84
-5.423686 1.824765 -1.712168 111 78 22
2.432747 4.351659 -5.763191 241 199 109
2.649495 4.319480 -6.067275 25 12 3
2.993641 1.985713 -5.390102 190 204 194
-4.420176 3.156329 -0.702739 150 106 29
-4.726707 2.681117 -1.114674 201 159 47
2.942451 4.906749 -5.378893 241 207 131
-5.961711 1.749068 -1.250617 170 133 46
2.957644 4.640134 -5.779546 191 152 83
2.897341 2.290301 -5.556432 29 32 25
-25.443459 -7.891063 -17.526165 49 55 69
-3.676702 3.844725 -0.344833 200 166 76
1.992425 4.797824 -4.674238 226 185 104
2.266927 2.131049 -6.386296 93 80 35
-2.075581 3.511115 -1.067386 254 255 252
-2.075581 3.511115 -1.067386 254 255 252
-4.718554 2.256678 -1.768886 102 68 21
2.094282 2.519463 -6.565527 66 58 30
2.692885 4.626481 -5.042649 231 195 108
-3.902534 2.448146 -2.230109 170 133 61
0.080917 3.690342 -4.367799 185 153 92
-3.168365 4.461374 -20.381508 31 27 13
-3.011244 4.552292 -20.473518 26 26 13
-2.054911 4.922259 -20.751320 22 24 19
-2.054911 4.922259 -20.751320 22 24 19
-2.162737 4.941694 -20.841541 138 142 135
-2.712142 5.154994 -19.444832 51 49 42
0.128138 3.580704 -4.581779 152 121 64
-1.887469 4.992681 -20.870420 33 38 30
-1.887469 4.992681 -20.870420 33 38 30
-1.426572 5.224267 -21.060963 21 20 15
-4.231647 2.425752 -1.972231 128 82 24
-3.109287 4.063434 -0.623743 201 154 65
2.002443 2.062865 -6.693111 151 146 42
-2.728385 1.764981 -27.822983 10 7 2
1.614673 2.569101 -7.006473 77 73 1
1.880120 2.996956 -6.708300 56 52 27
1.920084 3.049081 -6.651640 44 42 17
1.972097 3.117432 -6.589274 56 50 25
-2.155165 4.823929 -20.785088 128 133 125
-4.894598 2.269567 -1.544161 137 91 40
-2.276083 5.266051 -20.302078 54 58 52
-2.002349 5.745714 -19.709848 109 121 113
-1.964473 6.399996 -18.724909 55 51 44
-1.526700 4.459523 -1.621325 183 145 75
-0.549025 4.887314 -1.937266 189 153 76
-0.710211 5.137200 -1.260052 105 108 120
-0.636012 5.365371 -0.999569 69 70 76
-0.304811 5.318290 -1.415929 211 226 236
-0.105736 5.372808 -1.537983 212 230 243
0.180314 5.483574 -1.648207 74 84 99
-5.612892 2.906265 0.411317 99 98 102
-4.428317 3.827559 0.535877 205 104 0
-4.126071 4.091883 0.482403 179 111 30
-3.043271 4.178429 -0.446854 164 166 152
-1.895076 4.479922 -1.045006 174 177 177
-0.724623 4.771856 -1.965967 193 153 84
0.777009 3.880753 -4.788035 183 148 64
-24.865604 2.658058 -9.658564 92 74 34
-25.043905 2.984685 -8.818806 84 69 30
-20.259726 4.379077 -11.011564 101 77 33
-19.405289 4.670667 -11.506134 108 83 38
0.508491 4.002659 -4.326980 145 116 72
-22.780268 3.521884 -9.680897 63 49 13
-1.249411 4.585356 -1.704095 201 161 69
-1.301229 4.689754 -1.358202 170 179 182
-0.998661 4.736955 -1.694280 208 166 109
-0.204081 5.350328 -1.482460 220 232 246
-23.288900 3.890096 -9.180638 91 71 30
-0.043108 5.409081 -1.535667 216 228 243
-0.815637 5.103072 -1.204507 113 122 128
-1.379267 4.803162 -1.286822 170 180 190
-0.612790 5.240305 -1.207599 139 142 142
-0.502332 3.498961 -4.073481 227 186 102
-3.971001 4.253794 0.510889 195 127 11
-4.077223 3.933033 0.162134 206 146 35
-3.860920 3.841587 -0.108273 191 142 55
-2.729267 4.774382 0.215526 152 153 148
-34.977459 -3.113778 -8.677958 54 53 12
-2.210202 4.370098 -1.070013 171 146 76
-0.924975 5.629960 -1.124425 0 0 0
-0.909812 4.732212 -1.826683 205 168 97
-1.450899 2.971689 -2.972872 77 79 82
-1.610758 3.155406 -3.464791 193 149 55
0.113502 3.793653 -4.247476 131 103 62
-1.603259 3.180608 -3.447313 221 181 87
0.588426 3.938562 -4.531464 176 144 90
-1.510548 3.188485 -3.513182 195 152 58
-3.145793 3.963234 -0.729600 171 126 21
-0.379014 4.865479 -2.176194 177 138 59
-4.195621 3.317557 -0.648627 184 134 42
-0.843339 3.397059 -3.878118 203 159 65
3.292233 7.423938 -2.028329 123 79 22
-0.690421 3.443214 -3.956249 195 152 58
-4.556363 2.896383 -0.921076 197 157 62
-4.180022 4.211814 0.632577 196 125 28
1.079099 5.829642 -2.076790 113 135 160
-4.170362 3.946453 0.266786 226 159 38
3.189965 7.008261 -2.562528 182 134 65
-24.588657 2.828483 -7.865314 255 255 243
2.275987 6.418181 -2.508005 212 167 76
-24.301367 4.370957 -7.303266 132 132 115
-24.301367 4.370957 -7.303266 132 132 115
2.906864 6.442580 -3.104212 208 163 84
-0.737274 4.785056 -1.919554 223 183 93
-4.478251 2.354035 -1.818741 101 75 23
-1.234965 3.125866 -3.883133 211 173 83
2.847296 5.387629 -4.052933 51 55 55
-0.470449 4.792834 -2.171000 200 161 97
-4.430875 2.254053 -2.013726 92 72 31
-0.720677 3.447676 -3.920415 239 198 92
-0.559020 3.440711 -4.097923 190 148 66
-0.242290 3.467767 -4.375480 148 119 66
-3.384081 2.571178 -2.578336 177 129 29
-0.092295 3.509812 -4.457084 206 177 111
-3.729863 3.863509 -0.217748 174 124 54
4.080716 9.191600 -0.167384 48 30 10
-33.623501 -4.822761 -10.443492 90 66 13
-4.177859 3.783845 0.037416 175 133 21
-24.752405 2.716854 -6.932932 250 253 219
-2.819595 4.161137 -0.746666 174 134 42
0.695800 5.631026 -1.971478 171 207 239
-0.762478 3.314935 -4.078384 127 103 51
1.433703 4.346632 -4.776827 224 184 106
-0.762743 5.109517 -1.217938 151 169 176
-0.672128 5.414458 -1.045589 137 141 144
-3.753793 4.607416 0.804559 155 113 26
1.605439 5.795742 -2.748202 161 128 54
-3.435463 3.776941 -0.730273 199 143 25
-4.040889 3.992654 0.213116 202 156 42
1.871310 5.841024 -2.940946 149 121 53
-3.568216 2.513697 -2.489094 179 128 37
-5.197169 3.244881 0.248546 162 123 43
-0.675578 4.842131 -1.926862 228 195 105
-3.685657 4.235472 0.340752 194 197 183
-0.345511 4.891305 -2.180138 213 179 106
-3.286677 2.704715 -1.968047 30 27 15
-0.690735 4.774769 -1.995063 184 146 56
-3.203289 2.639180 -2.666448 150 105 22
-2.651762 4.208344 -0.872080 165 129 33
-0.690735 4.774769 -1.995063 184 146 56
-3.490453 2.781924 -2.145494 148 103 14
-4.031953 3.208884 -0.944404 185 139 39
-1.621913 4.432518 -1.544618 167 136 53
-3.256570 2.597238 -2.665717 204 164 66
1.838836 6.481757 -2.006659 157 108 39
-1.271256 4.527949 -1.773405 160 124 52
-3.423908 3.961892 -0.231272 95 100 82
3.381277 7.206263 -2.453615 199 153 61
-1.508679 4.439352 -1.660951 160 122 50
-3.548107 2.506552 -2.520951 212 170 67
2.719164 6.403551 -3.071802 220 178 91
1.949109 4.639771 -4.810714 176 141 79
-3.259515 2.999397 -1.384682 82 88 83
-3.363128 2.631794 -2.515046 193 150 52
-4.433021 2.483064 -1.652378 78 48 0
-0.785500 5.194258 -1.116298 125 127 112
1.943171 4.610428 -4.896577 219 181 106
-7.298659 1.526665 -0.032663 128 91 36
-3.395142 2.645257 -2.462448 160 116 28
2.877858 2.411741 -5.599680 67 80 96
1.996736 4.184800 -5.520055 224 185 91
-5.550034 2.731783 0.395116 146 148 136
2.444132 2.479856 -6.138124 188 180 138
0.466582 5.564795 -1.839977 179 206 237
-25.910395 4.111486 -8.510050 44 45 37
5.771833 6.086411 -5.939912 31 39 49
-2.642175 4.936765 0.312972 71 72 71
1.704033 5.793568 -2.857983 139 109 36
-4.854914 3.632880 0.823373 251 104 0
2.937811 6.708795 -2.749314 126 82 42
0.862734 4.630416 -6.452538 169 134 73
-0.786306 3.377978 -3.959247 185 142 50
2.393443 2.652870 -6.180441 222 219 184
-5.268925 3.487903 0.788013 132 68 1
-3.832932 4.351655 0.514370 153 106 29
-2.709299 5.416883 -19.631409 61 64 58
2.119510 2.803215 -6.447566 232 225 208
-18.785717 4.781031 -12.008068 116 90 39
-1.766442 2.620334 -2.182046 48 50 47
-1.057792 3.317516 -2.983494 30 34 35
-0.833927 5.238627 -1.425216 218 233 240
-5.443815 3.438657 0.815022 135 90 40
-2.587296 3.296543 -1.202388 69 69 56
2.356659 3.105040 -6.162238 66 55 27
-20.720282 5.153917 -9.673018 104 85 45
-4.147767 3.088504 -1.035319 127 78 13
0.984583 4.017405 -4.781862 187 160 129
-0.688278 5.248051 -1.155767 110 110 116
-4.309835 3.988801 0.423239 204 156 46
1.834314 3.022692 -6.763717 125 126 102
-0.607497 5.177308 -1.314086 69 75 78
-4.057553 3.172181 -0.983110 151 108 23
-0.527199 5.348224 -1.134313 221 227 235
-0.598209 5.266864 -1.188891 219 235 243
-23.933504 5.261569 -7.807889 104 85 45
-3.319947 4.631623 0.787243 49 52 45
1.834314 3.022692 -6.763717 125 126 102
-0.691175 5.135550 -1.301787 218 222 225
-4.344900 3.030025 -0.920735 183 139 46
-0.000622 3.758190 -4.190708 101 65 28
-0.557543 5.325704 -1.137015 79 87 95
-31.797169 -2.345449 -3.296729 232 229 184
2.445649 6.620273 -2.508270 217 170 64
-23.984137 4.726757 -7.784681 78 65 38
-0.753910 5.165819 -1.180734 211 234 248
-0.312198 3.493656 -4.267249 129 98 55
-2.373019 4.738457 -20.865150 126 127 121
-3.275226 4.728941 0.722701 46 44 39
-3.855779 3.282082 -1.044295 186 139 21
-0.665447 5.173850 -1.256101 193 202 180
-0.450408 3.574815 -4.011530 164 131 70
-1.921089 5.460905 -20.144384 80 83 81
-3.520603 4.585216 0.766475 205 197 178
-3.920712 4.077483 0.243894 159 125 47
-0.708544 5.148659 -1.262132 96 100 86
-1.587955 4.416498 -1.619756 129 93 38
1.829952 2.354780 -6.832428 117 101 24
-33.160591 -5.297194 -10.099838 106 85 0
3.372565 6.170879 -3.381212 42 27 11
-0.758269 5.115291 -1.262133 195 201 184
-0.587014 3.444320 -4.065878 145 111 47
1.658001 2.549533 -7.034236 144 133 43
-1.447176 2.534062 -2.525286 58 60 57
-3.667602 3.492784 -0.923746 176 127 33
1.984497 4.298070 -5.361270 240 198 87
2.274282 2.270152 -6.349343 177 152 115
-6.506972 2.307886 0.203439 131 92 48
-0.031011 5.543372 -0.505913 37 32 28
-4.486297 2.617310 -1.405686 151 108 36
2.369555 2.465422 -6.233324 87 72 28
0.742293 0.837928 -2.244770 75 63 34
-2.782178 4.842196 0.290815 66 71 70
-4.398349 2.532870 -1.640772 187 137 53
2.979620 2.244159 -5.491308 71 73 67
-34.118549 3.636094 1.359807 59 48 78
-4.613935 3.688879 0.343417 205 145 23
-2.653068 5.381017 -19.389763 61 64 58
-24.443333 2.003888 -10.276731 67 50 18
-3.977440 2.517607 -2.072795 73 49 15
-22.748831 3.513180 -9.668585 72 53 18
2.345658 5.789178 -3.503831 210 172 101
-23.265200 4.496187 -8.934244 100 82 44
-3.878273 3.264758 -1.044249 195 149 36
-30.840572 -0.899830 -9.728343 93 72 26
2.685011 6.892143 -2.133936 209 164 67
-6.284139 2.755491 1.251988 169 166 157
2.940370 7.341232 -1.763152 120 80 23
-32.745296 -6.449713 -13.625696 42 24 0
-2.105932 4.424284 -0.923526 156 173 172
-32.210110 1.057279 -6.222052 62 49 17
-2.539387 4.270279 -0.851738 106 78 36
-5.967083 2.638213 0.096932 130 93 42
-4.780452 3.143751 -0.298261 216 173 65
0.523954 5.618536 -1.793914 224 231 245
-4.914377 3.131365 -0.190485 172 129 43
-25.084023 4.098728 -8.456459 43 44 36
-4.023572 3.683517 -0.271484 170 122 17
-25.084023 4.098728 -8.456459 43 44 36
-3.484747 4.105283 -0.047482 188 194 173
-4.734159 3.728233 0.709124 255 157 10
-4.054537 3.929360 0.157674 169 127 18
-0.235819 3.460488 -4.386331 153 122 70
-3.853963 4.271694 0.394671 145 112 30
-0.826151 4.816260 -1.619717 0 0 0
-4.284195 4.044670 0.524116 198 151 59
-23.868086 4.779202 -8.230171 101 85 47
1.583115 4.382092 -4.900502 191 151 79
-4.465426 3.735094 0.704326 248 108 0
-3.202307 2.488227 -2.901684 147 107 35
-5.757611 2.843503 0.537429 49 51 46
2.963585 4.916622 -4.595105 55 61 69
-6.079845 3.052307 0.932500 255 254 252
3.006591 5.071067 -4.465217 51 55 56
-34.153751 -5.620250 -9.710154 118 98 3
2.350840 5.142362 -4.526449 188 152 94
-5.278270 3.429800 0.568197 174 124 63
-1.811569 2.837005 -2.662823 87 95 94
-5.431272 2.924458 0.137284 168 127 68
2.414348 5.528800 -3.958846 131 95 56
-5.555038 3.338015 0.689690 148 102 60
-4.269679 2.401262 -1.940515 74 51 8
-0.089280 3.493942 -4.486067 177 146 88
2.590254 5.533999 -3.911415 110 112 118
-0.605164 3.494905 -3.982364 253 212 116
0.308349 5.568811 -1.655807 211 219 232
-3.859414 2.648386 -1.984038 130 94 25
-1.088722 3.372244 -3.668603 225 186 93
-1.174245 3.346690 -3.625721 221 187 95
-1.197870 3.162941 -3.850373 161 125 45
-1.439176 3.063550 -3.773664 208 171 86
0.180903 5.510448 -1.604842 104 109 123
-0.169101 4.944144 -2.229802 218 183 119
-0.739849 5.220818 -1.120712 204 216 223
-0.440208 4.865693 -2.082007 206 166 94
0.181196 3.970900 -3.374607 65 69 68
-0.802069 4.765490 -1.885749 227 186 107
-0.033998 3.855350 -3.272036 99 105 103
-1.107207 4.655692 -1.748390 206 164 88
-0.078855 3.534033 -4.435475 124 93 46
-0.365587 3.565431 -4.114410 169 135 70
-0.342946 3.409470 -4.363401 105 83 46
-0.560228 3.352655 -4.231218 150 122 76
-1.875628 4.375010 -1.383767 169 131 71
-0.918870 3.408972 -3.789378 187 146 61
-0.958008 3.389065 -3.757143 186 143 58
-0.983817 3.368550 -3.773264 228 188 101
-0.575552 5.210233 -1.306524 216 223 231
-0.422588 4.881629 -2.070028 184 144 72
-0.699805 5.106443 -1.319639 216 227 236
-0.738104 5.116965 -1.263045 220 226 237
0.218294 3.992059 -3.372935 98 103 99
-0.036129 3.529046 -4.490956 126 95 45
-0.246003 3.660638 -4.077444 146 109 68
-1.250661 4.613268 -1.660763 179 134 46
-1.474532 4.542894 -1.543757 175 134 53
-0.517078 3.500593 -4.054308 134 99 35
-0.771731 3.306031 -4.101688 131 99 44
-1.085303 3.323720 -3.750391 200 160 71
-1.155072 3.329587 -3.667814 187 150 58
-1.126626 3.298475 -3.716679 187 151 59
-1.196919 3.298651 -3.666376 229 188 99
-1.343971 3.273974 -3.557750 182 144 55
-1.331598 3.259078 -3.588017 233 194 103
-1.226824 3.123157 -3.881492 208 172 89
-1.488483 3.165078 -3.571861 191 153 63
-0.576742 5.186144 -1.318444 206 213 224
-1.479813 4.552813 -1.520054 208 169 90
-0.408408 3.549680 -4.083504 169 133 74
-1.069121 3.308828 -3.776544 224 187 98
-1.272251 3.157870 -3.805710 213 176 91
-2.571432 4.222857 -0.904894 160 122 51
-2.800516 4.165260 -0.772987 177 140 73
-1.640231 3.053912 -3.589390 201 164 78
2.289464 4.726353 -5.010104 195 161 93
1.978458 2.246691 -6.665287 162 160 46
2.671755 4.689403 -5.470202 215 174 84
-0.387202 4.918712 -2.069450 132 108 60
2.671435 5.283878 -4.018414 115 141 168
2.099397 3.138778 -6.424148 30 23 5
-0.215129 4.775184 -2.483158 141 101 28
-0.316013 4.857093 -2.212083 188 151 63
-1.015703 3.181900 -1.316089 41 44 35
-32.558781 -5.000089 -13.025912 69 51 11
-27.638220 -6.304551 -18.929298 4 2 3
-26.553738 -6.670192 -18.786453 31 29 39
2.354114 5.136139 -4.273524 51 44 27
2.114862 5.112833 -4.259835 157 128 68
-31.631351 -7.014861 -11.909075 129 112 38
-32.221962 -9.179105 -15.040004 40 32 18
-4.419286 2.237055 -1.929155 112 68 29
2.068472 5.713362 -3.416761 176 151 79
2.001832 5.552506 -3.556201 168 148 106
-31.625925 -5.701513 -12.190882 69 48 14
-31.511757 -6.515598 -12.082487 102 77 13
-0.494547 4.845213 -2.074790 180 139 60
-1.016253 3.872613 -1.731922 28 28 30
-31.903898 -5.329810 -11.976526 69 63 5
-29.131353 -5.307661 -10.244775 143 113 19
-24.442551 -4.249062 -8.747686 141 113 22
-31.843178 -6.559605 -11.845707 143 115 19
-0.742988 5.040385 -1.343111 203 207 207
-0.523761 4.768879 -2.149428 202 164 93
1.462051 4.348560 -4.815958 189 160 103
-34.678650 -12.448143 -19.216675 64 55 54
-0.758528 4.805505 -1.869081 226 189 94
-2.361273 5.257888 -20.014753 94 99 94
-1.295925 5.430803 -21.400015 75 75 69
-1.979263 4.987906 -20.777287 102 102 92
-3.011244 4.552292 -20.473518 39 37 23
-1.170572 5.239254 -20.464737 31 29 22
-2.251280 4.742790 -20.724930 40 39 33
-3.984837 3.757938 -0.286160 183 135 58
2.471977 5.041575 -4.245183 140 154 177
-4.325473 2.463813 -1.791341 158 115 27
-2.553284 4.835206 0.125300 196 196 195
-1.050137 4.541795 -2.085715 219 199 149
-3.498465 4.020583 -0.159815 84 79 73
2.256030 4.101774 -5.995059 171 136 65
2.253038 4.104584 -5.957118 171 136 65
-4.573009 2.864575 -1.062584 143 98 36
-4.354490 2.113111 -2.273297 155 109 34
2.471963 2.402776 -6.137292 84 64 21
-31.341537 -6.758999 -16.106684 60 45 16
2.246122 3.966886 -6.245470 50 40 7
2.525730 3.591431 -5.933668 52 49 20
1.599373 2.986690 -6.987143 79 73 29
-0.614230 5.181639 -1.311210 117 125 108
2.464254 5.682481 -3.814262 149 118 74
2.247920 2.403356 -6.364400 208 206 176
2.742723 2.216113 -5.671435 21 28 33
-24.548088 -5.588804 -19.917934 40 34 18
-0.818193 5.142517 -1.155514 174 176 162
2.434859 5.538408 -3.951084 137 107 69
2.146584 5.002659 -4.473967 189 151 68
2.414604 4.993987 -4.820869 227 188 88
-0.299432 4.126100 -2.150871 84 92 97
2.598235 4.868363 -5.147113 231 193 90
2.471730 4.709218 -5.249389 202 166 70
2.521362 4.411064 -5.725650 203 163 66
-0.804446 5.114774 -1.211876 123 126 109
2.089738 2.847166 -6.480332 231 230 214
1.842287 3.081805 -6.745160 61 53 40
1.893437 3.221541 -6.651073 133 129 110
1.893107 3.221829 -6.651667 133 129 110
2.172646 3.984037 -6.384202 209 195 157
-1.429833 3.140959 -3.668673 139 112 45
-1.436052 4.486948 -1.656010 205 168 79
-0.543084 4.799430 -2.104842 181 144 68
-0.882748 4.690564 -1.916718 213 175 93
-0.284246 4.913405 -2.177496 213 178 108
-1.202152 4.655012 -1.649668 196 158 58
1.715982 5.685405 -3.080496 201 169 94
-0.017384 4.082658 -0.512609 211 228 242
-0.686020 5.224328 -1.166832 72 87 99
-1.221194 4.884226 -1.170384 200 202 199
0.639818 5.614432 -1.932113 174 190 213
1.809792 5.511817 -3.407384 236 194 80
2.676469 3.665889 -5.788833 133 127 90
2.070369 2.780208 -6.508060 133 124 94
2.332658 2.684723 -6.270924 69 57 15
1.621883 5.241631 -3.564636 163 122 59
1.230425 4.192834 -4.750226 199 155 69
2.191115 4.027181 -6.131848 172 148 84
2.498560 2.773975 -6.054208 236 226 187
-0.598038 5.269641 -1.190903 210 215 211
1.087339 5.821967 -2.071894 69 72 88
1.397535 5.473845 -3.026820 193 150 46
1.856125 5.662037 -3.195109 167 122 37
1.735901 4.814405 -4.346635 180 136 32
2.500791 4.754536 -5.190736 234 195 82
2.330649 3.178059 -6.157872 172 165 133
1.808899 2.528632 -6.846853 86 77 22
1.955815 6.086229 -2.674839 204 166 98
2.076024 6.037100 -2.864741 208 168 70
1.703905 5.795686 -2.859685 172 124 26
-3.999984 3.262112 -0.906872 147 92 30
1.335987 5.301159 -3.212383 230 193 85
2.060139 5.631094 -3.508923 206 169 72
2.454903 4.655558 -5.295645 236 194 81
-17.156981 0.835682 -19.712061 58 54 47
2.448932 4.549227 -5.471728 217 171 65
-1.565487 5.369932 -20.757286 11 10 5
-0.315694 4.919677 -22.497631 25 24 22
-0.658465 5.137679 -1.305606 202 206 205
-0.770536 4.805452 -1.640551 189 189 188
-1.085821 4.585072 -1.982203 114 73 10
-1.077147 4.472510 -2.040373 100 70 32
-4.111096 2.701121 -1.643539 145 94 30
-4.200359 2.258843 -2.214767 135 89 18
1.736449 4.655235 -4.594650 228 182 80
2.612215 4.824976 -5.201005 180 137 32
2.059922 4.474030 -5.171697 201 155 62
0.464345 3.721033 -4.699047 156 124 48
-1.503098 5.074716 -21.826414 21 20 16
2.181586 3.990167 -6.393202 165 156 108
1.958408 3.178238 -6.585593 131 124 102
2.411787 3.313954 -6.079007 56 51 21
2.406294 3.314157 -6.076516 56 51 21
0.884213 5.770945 -1.930181 160 178 203
1.416016 5.563867 -2.911772 235 194 77
1.840962 5.294787 -3.741367 189 156 86
-4.666010 2.377479 -1.585820 151 107 41
-4.666010 2.377479 -1.585820 151 107 41
-4.337620 2.150542 -2.247813 174 127 46
2.000195 4.604602 -4.925989 146 110 33
-2.452475 5.440801 -19.710844 48 48 43
-2.390499 5.284837 -20.234955 86 87 82
-2.172013 5.372586 -20.248281 96 97 90
-2.160031 5.362941 -20.200993 96 97 90
1.890995 3.333852 -6.648258 68 61 47
2.451544 2.774566 -6.098374 224 222 195
2.453980 2.774856 -6.098681 224 222 195
-3.888997 2.697201 -1.878515 191 141 44
-4.092847 2.521794 -1.921462 173 125 40
-4.223949 2.401022 -1.986049 170 122 52
-1.931343 5.474974 -20.203074 84 86 80
-1.864782 5.472326 -20.383793 32 36 28
-1.788626 5.210333 -21.074059 38 34 22
-1.630425 5.132659 -21.093033 34 32 19
1.810138 3.095175 -6.790382 76 69 51
-2.369350 5.464016 -19.903774 102 98 92
-2.077281 3.375618 -1.101869 255 255 253
-3.753640 2.444807 -2.390285 160 112 22
-4.005370 2.389333 -2.222296 128 78 14
2.313352 5.279512 -4.250974 173 132 66
-1.033985 2.948175 -1.416838 59 56 48
-2.902020 4.184745 -0.508787 157 158 145
2.766426 5.299392 -4.138109 136 140 142
-2.324319 4.220531 -1.178261 129 83 1
-1.976398 4.455076 -1.012920 176 181 182
-2.992788 2.720430 -2.762916 140 103 57
-1.786242 3.280763 -1.177369 76 76 68
-2.936916 4.091077 -0.742938 194 148 47
-2.438425 4.158700 -1.143596 188 144 39
-3.177592 2.678857 -2.682116 185 138 74
-3.131773 2.696190 -2.653851 139 98 46
-1.683403 4.560781 -1.413591 175 139 61
0.238625 5.524397 -1.640734 212 225 235
1.167095 3.989041 -5.019883 208 164 56
-3.150355 3.910304 -0.866410 150 100 6
-3.052294 3.920968 -0.884286 185 133 27
-3.854175 2.365903 -2.418061 124 84 35
-2.510907 4.174301 -1.082581 124 78 3
-3.086499 2.673237 -2.733627 140 98 45
1.928195 6.238462 -2.406256 157 111 36
-1.053505 2.693208 -1.825293 120 121 124
-0.845675 5.082621 -1.218373 217 222 226
-0.255644 5.430132 -1.307248 210 223 231
-0.048631 5.333407 -1.561443 220 230 238
0.399358 5.630033 -1.657866 222 238 251
2.357602 6.314466 -2.751443 82 55 21
-2.661549 3.230580 -1.157041 71 72 57
-2.123440 2.534537 -2.567022 255 255 253
0.980736 5.403817 -2.696891 252 255 255
-0.515542 3.627845 -3.142472 125 143 162
2.008324 2.980360 -6.540487 54 47 21
1.479697 4.221085 -5.043617 185 138 60
1.038936 4.068152 -4.772372 165 126 61
2.709812 5.899879 -3.763401 196 157 88
-1.819186 7.373651 -19.495762 58 58 45
3.238603 5.315766 -3.609307 44 37 31
2.283579 5.501075 -3.810594 171 131 79
-2.579866 4.119912 -1.102597 119 75 4
-2.419401 4.208511 -1.072353 124 82 6
2.587786 6.457477 -2.760546 200 151 79
1.474104 6.032085 -2.250957 192 146 73
-3.941682 3.899697 -0.004434 89 62 6
1.602594 4.822153 -25.631731 7 8 0
-2.194927 5.657229 -19.917952 121 124 118
-0.499078 6.552192 -23.103161 9 1 0
-0.920440 6.366344 -21.502935 70 60 37
-1.961722 6.684251 -18.851681 26 12 10
-4.473553 2.417975 -1.701977 125 92 30
2.502871 5.734435 -3.763297 208 169 101
0.137546 5.010597 -2.443681 204 164 86
-2.818881 3.975979 -1.013444 171 123 21
2.731890 6.387493 -2.926435 144 102 37
-1.576979 4.787361 -0.939405 191 204 210
2.910328 6.973921 -2.321736 156 109 29
2.808079 6.079905 -26.843367 57 55 37
2.228819 6.079193 -24.844507 54 52 36
2.170355 2.961354 -6.400799 157 151 129
2.218004 3.008853 -6.289764 198 193 166
2.218004 3.008853 -6.289764 198 193 166
2.165079 3.060555 -6.365916 59 55 25
-1.465302 6.724275 -19.518351 17 7 0
2.461537 3.368892 -6.039441 183 174 147
2.462112 3.371019 -6.042305 183 174 147
2.437081 3.464404 -6.033598 53 49 20
2.688568 3.568258 -5.776955 90 72 36
-2.122719 7.208313 -18.287090 19 13 2
-4.857073 1.978062 -1.987288 95 73 32
1.406591 4.310042 -4.755103 235 190 97
2.140409 5.234977 -4.201461 190 149 89
2.765957 5.427039 -3.977444 138 145 156
2.138032 5.358230 -3.990658 121 80 41
0.756071 5.371537 -2.959697 197 151 66
-1.726491 6.395822 -19.430658 27 13 2
0.041950 7.661357 -19.085514 51 47 29
-5.099712 1.879360 -1.872619 95 75 32
-0.990096 3.057544 -2.437321 0 0 0
2.300825 5.211661 -4.355262 190 149 77
3.205233 5.165303 -3.749568 240 245 234
3.298081 5.174304 -3.628447 94 98 98
1.368227 5.460839 -2.998437 223 180 78
-0.971534 4.594221 -2.018265 132 92 34
-1.109033 4.675759 -1.706906 186 151 83
-2.668466 4.068236 -1.108476 159 114 26
2.111075 6.177481 -2.738160 157 117 50
0.982695 5.776948 -2.031232 219 235 254
3.595152 7.376986 -2.410425 196 150 74
1.555046 5.062489 -24.827461 36 32 21
-2.875094 5.826254 -18.983465 105 63 52
-2.875094 5.826254 -18.983465 105 63 52
-1.742811 6.597095 -19.119709 52 40 30
-1.831754 2.574731 -2.279585 89 92 84
2.316194 5.076329 -4.458305 197 157 78
1.753502 5.049553 -4.012962 185 147 73
1.623939 5.092653 -3.822921 178 138 74
3.119617 5.240564 -3.692700 140 144 126
2.821023 6.137341 -3.444294 134 95 46
2.558721 6.029462 -3.318508 189 153 72
-0.810904 4.732554 -1.922199 191 154 85
-1.122822 4.589002 -1.785540 209 174 126
1.953765 5.953329 -2.907146 235 195 97
-1.330387 4.613236 -1.543896 229 193 116
-2.356467 4.252873 -1.082385 156 115 35
-3.023632 3.968149 -0.833061 190 146 28
-2.322114 4.279315 -1.068654 128 81 4
-0.563709 5.324538 -1.131886 118 127 138
3.332043 7.301143 -2.306061 190 144 66
0.164505 5.538188 -0.387984 161 162 113
2.458704 2.721270 -6.088510 91 76 36
-2.069396 5.479111 -20.136995 47 43 37
1.876732 3.054561 -6.692508 136 124 104
2.377675 3.216865 -6.127293 49 44 19
2.375567 3.217177 -6.122602 49 44 19
-2.296350 2.501690 -2.295557 49 51 43
0.761841 3.991567 -4.646308 146 109 57
-4.800950 2.757757 -0.863082 112 74 1
2.627047 6.170453 -3.242243 201 164 81
2.261810 6.082595 -3.082018 226 185 92
2.415796 6.147011 -3.067261 219 178 90
1.624368 5.813445 -2.717233 239 197 95
-2.830681 3.972062 -1.013967 176 128 23
2.388513 6.293269 -2.887453 184 141 64
-2.536198 4.158634 -1.040923 149 106 32
-2.948353 3.994322 -0.879697 183 139 22
2.085855 6.279051 -2.575345 192 147 77
-2.936916 4.091077 -0.742938 193 149 39
-0.785186 5.194291 -1.115654 138 151 161
-0.753564 5.208498 -1.098957 218 232 241
-0.630291 5.280286 -1.108560 214 225 237
1.579143 2.775414 -7.084113 158 150 51
1.580391 2.777668 -7.085949 158 150 51
2.370162 3.142692 -6.121830 176 167 136
2.396548 3.263088 -6.094551 214 213 175
2.523726 5.099080 -4.761022 207 169 85
2.736634 5.362727 -4.008225 115 121 129
-2.428921 4.187623 -1.126563 135 91 2
-2.570651 4.147311 -1.050870 117 74 1
-2.805049 4.116633 -0.846132 176 130 50
-2.911316 4.065889 -0.815209 184 140 44
-0.579608 5.366081 -1.087507 161 176 186
2.167366 2.893670 -6.394062 177 170 145
2.719153 3.640460 -5.744724 221 209 183
-2.980644 4.163304 -0.462989 162 168 154
-4.955738 2.218193 -1.524644 170 131 52
-3.540001 2.651180 -2.290283 192 155 64
-2.303142 3.526205 -1.188062 23 22 19
-2.740159 4.087228 -0.869712 126 81 11
-3.424963 3.677735 -0.864914 143 87 10
-2.946052 3.890796 -0.949825 165 114 15
-2.075222 3.576331 -1.188334 255 255 254
-0.679785 5.272879 -1.099391 184 198 211
1.961208 5.924836 -2.890737 220 180 83
1.617113 5.421222 -3.326985 233 191 90
-3.725565 4.101089 0.211158 185 188 179
-3.150667 3.843764 -0.934259 139 85 6
1.569365 6.139482 -0.921642 63 47 32
1.595217 5.670032 -2.939609 231 191 79
-4.294577 3.877028 0.324888 211 159 45
-2.719671 4.210007 -0.771329 163 128 65
0.318325 5.173120 -2.465587 191 156 72
-3.487982 3.900848 -0.509768 178 123 14
-3.824839 3.249197 -1.121925 163 104 8
-2.500037 4.217826 -1.021732 139 94 20
-0.802571 4.799254 -1.816522 187 146 58
-0.214364 5.395289 -1.409717 220 237 252
0.239406 5.009096 -2.594325 162 124 40
1.345342 5.665056 -2.657323 196 154 52
1.310033 5.571336 -2.863603 221 177 76
1.808093 6.135621 -2.461443 150 104 45
1.935563 5.663579 -3.339165 230 185 92
-3.393670 2.749997 -2.311765 198 156 74
-1.588358 4.573866 -1.374416 169 137 67
-0.845582 4.861327 -1.556256 228 242 254
-0.198106 4.885040 -2.282775 207 168 90
0.473565 5.095062 -2.682794 242 200 101
1.447539 6.094324 -2.078701 212 168 67
1.589838 6.121502 -2.221412 221 174 82
1.674014 6.061932 -2.443546 198 149 72
1.483290 5.449771 -3.072228 239 197 96
2.195822 6.382735 -2.523061 151 104 36
3.152616 7.367736 -2.002876 170 128 55
3.237100 7.225650 -2.304157 142 94 14
1.216416 4.177550 -4.727624 220 176 101
-3.546655 3.294055 -1.322535 136 90 19
-3.155177 3.847657 -0.919661 135 83 2
0.251732 5.534759 -1.644550 218 236 255
0.846607 5.288783 -2.705379 222 190 116
1.362400 5.881432 -2.288774 166 125 44
1.063250 5.366552 -2.807444 220 182 84
1.512291 6.000342 -2.327163 200 152 75
1.452601 5.449805 -3.153287 204 161 66
2.670313 6.767328 -2.372241 163 116 41
2.414650 6.245821 -2.912350 208 166 87
2.036162 5.635576 -3.420235 184 144 57
1.845393 5.325962 -3.667720 147 108 58
2.416776 5.862511 -3.455540 203 166 97
1.008061 3.964632 -4.866938 232 187 95
3.642723 7.379343 -2.484889 155 111 32
-2.171419 4.904310 1.044244 108 101 53
-3.070703 4.051508 -0.677839 203 154 62
-3.031970 4.057796 -0.716945 167 117 29
-2.540229 4.239053 -0.951538 186 146 45
-3.508982 2.677064 -2.276791 140 93 16
-2.391268 4.295511 -1.022111 171 132 54
-1.780248 4.505522 -1.248235 180 159 127
-1.651289 4.508733 -1.430441 162 125 44
-1.650276 4.503417 -1.428687 162 125 44
0.357008 5.173772 -2.435530 190 156 89
1.355044 5.842599 -2.389988 190 152 60
1.716946 6.027105 -2.511073 154 111 48
1.778234 5.869148 -2.843240 205 162 67
2.258728 6.310923 -2.665004 176 132 71
2.258728 6.310923 -2.665004 176 132 71
2.081531 6.074780 -2.819156 159 123 41
2.495598 6.345200 -2.823745 155 112 38
1.973289 5.558012 -3.493478 175 136 59
2.380512 6.064358 -3.158533 159 121 35
2.604293 6.385563 -2.944653 202 159 81
2.434069 6.114834 -3.143099 207 169 84
2.003884 5.540610 -3.537622 196 159 86
2.732931 6.421340 -3.016203 195 157 74
2.075013 5.520600 -3.611920 147 106 53
2.521620 5.986344 -3.351718 212 177 112
2.349718 5.650133 -3.797251 142 110 63
3.000550 6.441232 -3.236554 188 156 78
-3.538807 3.356205 -1.240831 135 88 0
-3.005189 4.001674 -0.818169 159 107 5
-2.796201 4.029314 -0.979587 131 84 11
-2.599072 4.205251 -0.914043 187 147 54
-3.751827 2.266693 -2.645467 140 98 31
-3.192855 2.740096 -2.515436 183 153 103
-1.768021 4.494419 -1.282340 192 164 77
-1.413351 4.611443 -1.497741 187 152 63
-0.147024 5.662292 -0.625091 212 214 169
-0.725233 4.831502 -1.866647 190 158 62
-0.090707 4.876211 -2.444237 140 100 27
0.549410 5.598045 -1.862030 112 121 140
0.570372 5.577368 -1.922639 174 189 213
1.059406 5.711663 -2.184867 180 190 213
0.631129 5.063960 -2.791088 210 170 71
1.638066 5.857421 -2.701317 197 154 59
1.644662 5.759050 -2.861856 243 203 92
1.472731 5.328903 -3.342501 204 161 69
2.338586 5.979524 -3.195366 162 124 43
2.386693 6.017918 -3.187278 217 179 96
2.398137 5.987464 -3.280629 208 169 87
2.308589 5.666500 -3.661120 173 140 89
-3.127514 2.732425 -2.599460 154 117 70
-0.797038 4.783770 -1.867438 187 148 57
-0.716827 4.796571 -1.929718 226 186 98
-0.472062 4.831552 -2.111195 210 171 93
-0.228094 5.000785 -2.104076 189 169 126
-0.216102 4.989344 -2.127509 235 210 112
-0.167160 5.020233 -2.136973 190 175 123
2.159476 5.968033 -3.069596 212 171 83
2.589100 6.368878 -2.873269 164 119 45
-4.189661 2.329414 -2.140894 85 62 12
-0.700058 5.131863 -1.302675 176 178 184
-4.593884 2.603002 -1.336371 193 142 61
-3.779902 2.910436 -1.650530 137 89 32
-4.991382 2.171557 -1.572747 109 66 26
-1.889148 4.472305 -1.204131 49 40 12
-0.048237 5.401080 -1.551390 213 223 232
2.093794 4.908350 -4.578439 196 154 64
-3.117679 3.820662 -0.988352 126 77 21
-3.919014 3.017243 -1.371427 188 134 47
0.616534 5.215023 -2.639267 244 202 89
3.130754 6.354571 -3.361959 70 49 11
-3.935286 3.133990 -1.186303 103 65 25
-4.721802 2.147075 -1.874527 110 66 22
-1.112907 4.855688 -1.317622 219 228 232
-4.195189 2.414250 -2.024227 180 135 69
-3.801735 2.714188 -1.944190 182 126 35
-1.472777 4.586098 -1.480816 203 172 121
-4.296210 2.166453 -2.272098 183 140 71
-3.657422 2.626868 -2.215422 124 76 9
2.090922 6.085288 -2.829878 150 113 29
2.403405 5.454452 -4.041274 125 95 56
2.329522 4.844096 -4.892938 193 159 72
-3.571520 3.432299 -1.133932 130 88 28
-4.090421 2.571172 -1.867559 203 153 68
-3.876884 2.713516 -1.856646 148 100 15
-4.448649 2.227421 -2.027413 132 84 23
-3.817729 2.375720 -2.438278 199 150 48
-3.502237 2.529753 -2.503047 156 106 15
-3.617164 2.377588 -2.628941 160 112 30
0.967967 5.714968 -2.108433 114 124 131
-3.803738 2.562097 -2.168815 161 117 53
-0.082947 4.951666 -2.335251 175 134 54
-3.651825 2.672487 -2.150529 149 101 17
-3.365895 2.590370 -2.553433 196 144 46
-3.318604 2.577552 -2.644266 184 137 38
0.921931 3.975108 -4.811671 186 139 39
-0.331902 5.330107 -1.377680 191 204 210
-0.507004 5.405512 0.121911 46 46 54
-3.076328 4.808363 0.431133 208 211 201
1.382903 5.043057 -3.611623 139 100 67
-3.822680 2.992643 -1.462080 179 140 53
-4.416926 3.857770 0.639532 255 144 12
0.807215 5.686954 -1.975437 214 235 252
0.473758 4.077258 -4.189015 164 131 77
1.921191 6.104847 -2.615399 98 54 22
-3.341009 2.632376 -2.546161 192 149 54
0.105570 3.619509 -4.500275 196 154 78
0.441732 3.986622 -4.289463 195 162 109
0.069027 3.761084 -4.252384 191 152 103
-0.273643 3.464895 -4.339891 190 153 102
-4.873864 1.999229 -1.985755 152 117 50
0.372167 3.958220 -4.258642 194 162 108
0.372167 3.958220 -4.258642 194 162 108
-0.138722 3.523323 -4.393911 205 165 101
0.154943 3.783551 -4.299222 188 154 99
0.232300 3.904068 -4.201168 182 151 104
0.198433 3.874967 -4.210332 157 122 74
0.369968 4.106985 -4.025710 155 129 98
-0.162261 3.932333 -3.790656 46 43 39
1.803397 6.234289 -2.298151 179 127 43
0.210490 3.722732 -4.435042 237 192 114
0.110646 3.700482 -4.383115 241 195 108
0.142839 3.759634 -4.327598 164 123 61
0.083774 3.706442 -4.345088 193 145 68
0.017965 3.668532 -4.324522 226 182 101
-0.429572 3.408845 -4.304291 206 168 111
-0.377847 3.579652 -4.081601 176 134 60
-0.816184 3.247853 -4.109795 177 139 58
-1.435327 3.142061 -3.664403 198 158 70
-1.243827 3.323467 -3.584599 212 171 91
-1.423415 3.168436 -3.640635 224 184 97
-3.766874 2.590847 -2.163296 143 102 17
-0.849744 3.406138 -3.849041 226 182 95
-1.052066 3.344586 -3.741194 227 184 91
-1.156508 3.288182 -3.735142 225 182 87
-1.292654 3.292522 -3.587030 182 142 54
-0.148707 5.411211 -1.469965 227 240 247
-4.174893 2.377141 -2.070446 149 111 39
-3.823342 2.758517 -1.858884 158 127 54
-3.859489 2.650015 -1.985243 184 146 58
-3.736335 2.631005 -2.134267 203 161 61
-3.454624 3.967099 -0.377567 122 92 37
-3.894296 2.460533 -2.198886 152 111 39
-4.401576 2.786044 -1.262420 189 143 34
-4.930375 3.004037 -0.448120 148 101 23
-4.100096 2.990108 -1.230560 116 82 27
